ply
format ascii 1.0
element vertex 1293
property float x
property float y
property float z
property uchar red
property uchar green
property uchar blue
end_header
-101.33 0.807727 16.4035 255 255 255
47.2828 1.22558 19.8029 255 255 255
48.182 1.251 20.7467 255 255 255
54.7917 2.06944 26.0362 255 255 255
70.6955 2.81306 17.5244 255 255 255
69.8709 5.0945 -28.3023 255 255 255
-59.1777 7.91417 -93.762 255 255 255
-87.3452 2.94329 10.7476 255 255 255
-72.5341 4.9058 -20.7403 255 255 255
-82.2498 3.69824 4.56091 255 255 255
-94.2899 3.2294 13.3818 255 255 255
-60.4834 10.3681 -97.8917 255 255 255
-43.1018 -1.68966 118.948 255 255 255
-37.9762 7.87314 -40.5045 255 255 255
-103.503 4.32416 16.1107 255 255 255
90.9299 9.87293 -17.5777 255 255 255
-42.8388 10.6716 -50.5851 255 255 255
-58.0996 13.7062 -92.8243 255 255 255
-58.1713 13.7585 -91.3248 255 255 255
-60.1098 14.5237 -98.1152 255 255 255
-83.5549 7.14091 5.46875 255 255 255
95.6054 10.8215 -14.6387 255 255 255
-58.7515 14.4847 -92.5702 255 255 255
-58.7515 14.4847 -92.5702 255 255 255
-79.6404 8.61669 0.439251 255 255 255
-77.4818 9.16124 -3.65704 255 255 255
-77.5558 9.03852 -2.58157 255 255 255
-71.9059 10.7764 -21.1828 255 255 255
-71.9059 10.7764 -21.1828 255 255 255
-42.1191 14.0518 -53.5797 255 255 255
94.6943 13.28 -14.1285 255 255 255
-36.1142 14.5362 -53.4649 255 255 255
-82.2047 9.43765 4.84867 255 255 255
-78.9529 10.2017 -1.47906 255 255 255
-26.8836 11.9406 -15.504 255 255 255
-25.1285 11.5393 -9.55517 255 255 255
-36.3788 14.8618 -52.6693 255 255 255
-37.7917 15.9184 -56.4406 255 255 255
-97.9708 9.31966 15.3112 255 255 255
-90.0387 9.76398 11.3363 255 255 255
-92.9403 9.98905 13.3299 255 255 255
-90.9613 10.7412 11.8772 255 255 255
-103.182 10.3242 15.4334 255 255 255
-29.5366 15.2715 -23.0734 255 255 255
-105.164 9.33597 26.9453 255 255 255
-34.7466 18.6185 -59.156 255 255 255
-29.1878 16.2476 -23.5935 255 255 255
-41.4035 3.17742 119.624 255 255 255
-84.2174 13.4923 6.84286 255 255 255
-41.9904 3.39968 120.029 255 255 255
-81.0995 14.7372 4.03221 255 255 255
-49.7093 24.2792 -78.5254 255 255 255
-110.594 13.9795 14.1316 255 255 255
-106.882 13.9988 15.6125 255 255 255
-77.8616 16.3934 -0.796778 255 255 255
-35.7125 25.0708 -71.3852 255 255 255
-35.759 25.0276 -71.2374 255 255 255
-115.775 14.3655 15.099 255 255 255
-39.6414 25.392 -71.6067 255 255 255
-100.802 14.8901 16.3272 255 255 255
-103.456 15.3038 15.9754 255 255 255
-105.232 15.3134 15.5315 255 255 255
-25.558 21.0004 -19.3892 255 255 255
-98.6675 15.6781 15.782 255 255 255
-101.08 15.5261 16.4506 255 255 255
-103.69 15.5645 16.1458 255 255 255
-105.077 18.0569 15.7092 255 255 255
-108.111 18.2278 14.346 255 255 255
-109.288 18.0576 15.5815 255 255 255
-116.213 18.0705 15.3822 255 255 255
-79.7985 20.8873 1.76638 255 255 255
-81.9947 20.5513 4.27418 255 255 255
-80.087 21.2444 0.283792 255 255 255
-80.1197 21.0871 1.05883 255 255 255
-87.3743 21.1724 9.25561 255 255 255
-86.4588 21.3709 9.16887 255 255 255
-87.4031 21.7474 9.76447 255 255 255
-107.743 20.6299 15.0589 255 255 255
-94.2805 21.3222 14.12 255 255 255
-93.9967 21.828 13.0073 255 255 255
-75.1537 26.7949 -12.3933 255 255 255
-89.9332 23.5828 9.74155 255 255 255
-91.2651 23.5048 10.803 255 255 255
-94.2577 23.3069 13.8652 255 255 255
-94.24 23.5967 11.977 255 255 255
-104.684 22.8301 16.1459 255 255 255
-97.8978 23.6388 14.2726 255 255 255
-85.8666 25.4506 5.59534 255 255 255
-94.0036 24.5675 13.6298 255 255 255
-117.08 23.9672 14.3243 255 255 255
-103.606 24.7651 15.4249 255 255 255
-107.683 33.5906 -32.8072 255 255 255
-86.5998 27.5438 8.88342 255 255 255
-93.8257 27.7617 13.5334 255 255 255
-116.281 27.1771 12.409 255 255 255
-113.347 38.2668 -38.6269 255 255 255
-107.6 29.4764 15.9923 255 255 255
-93.8541 30.9755 13.6117 255 255 255
-95.8538 32.574 5.88347 255 255 255
-106.52 32.4235 14.9369 255 255 255
-110.229 38.6007 10.3213 255 255 255
-60.0272 -14.9737 123.626 255 255 255
87.8005 -21.437 15.3275 255 255 255
-7.24178 -18.3131 -0.0078668 255 255 255
-100.456 -12.3697 97.3269 255 255 255
-100.763 -12.4291 96.9321 255 255 255
-9.36929 -17.4801 0.529991 255 255 255
-101.972 -13.2658 17.2085 255 255 255
-101.972 -13.2658 17.2085 255 255 255
64.433 -14.5069 23.9021 255 255 255
64.3709 -14.5219 23.9211 255 255 255
-88.3326 -11.9131 11.0073 255 255 255
-82.4254 -11.79 5.07507 255 255 255
-83.0236 -11.9014 5.17594 255 255 255
-96.8699 -11.3935 15.6491 255 255 255
53.8504 -12.8842 24.6586 255 255 255
-82.0739 -10.6218 7.27417 255 255 255
-94.8013 -10.365 14.7345 255 255 255
-94.1144 -10.4146 13.6295 255 255 255
-94.5926 -10.1115 14.4125 255 255 255
-102.675 -9.83885 19.4602 255 255 255
-80.6507 -10.3362 3.51321 255 255 255
-100.273 -9.08729 96.0537 255 255 255
-98.5244 -9.91453 15.5298 255 255 255
-9.82003 -11.262 2.16997 255 255 255
-101.647 -9.7628 17.2353 255 255 255
53.6561 -11.7452 24.8688 255 255 255
-98.7503 -9.75906 15.8019 255 255 255
-99.4528 -9.69969 15.5824 255 255 255
-100.259 -9.66279 15.7519 255 255 255
-100.259 -9.66279 15.7519 255 255 255
53.6994 -11.493 25.2364 255 255 255
-107.754 -9.4652 17.0712 255 255 255
-8.74123 -10.7213 0.704718 255 255 255
-8.583 -10.7371 0.309857 255 255 255
-10.7777 -10.4439 0.0314251 255 255 255
55.46 -10.764 25.9771 255 255 255
0.0908509 -10.3532 -3.93815 255 255 255
5.03998 -7.68824 -8.72992 255 255 255
58.9289 -7.59134 22.8172 255 255 255
-76.2913 -6.07825 -9.9195 255 255 255
-81.8993 -6.14226 4.831 255 255 255
-87.5517 -4.96005 10.2553 255 255 255
53.463 -5.86749 28.1146 255 255 255
-89.9826 -4.29219 12.2944 255 255 255
-84.9984 -3.78444 7.42265 255 255 255
-88.5293 -3.64174 11.0025 255 255 255
-103.57 -3.26725 16.478 255 255 255
-81.2445 -3.0777 3.26981 255 255 255
-82.076 -3.12593 5.04413 255 255 255
-77.4232 -2.81034 -2.05134 255 255 255
-88.1175 -2.75524 10.4409 255 255 255
-91.0696 -2.70611 12.8247 255 255 255
28.7147 -1.66613 -35.7959 255 255 255
-94.3219 -2.52647 14.7308 255 255 255
-78.2616 -1.28701 -1.78341 255 255 255
67.0265 -1.52534 30.713 255 255 255
-0.18534 -0.735988 -3.2951 255 255 255
45.0885 -0.63035 12.8308 255 255 255
-40.2309 2.94592 -42.8415 255 255 255
-41.7387 3.23582 -50.5684 255 255 255
-42.0938 4.05547 -50.0802 255 255 255
-48.9914 5.02478 -64.6926 255 255 255
-85.7711 5.11474 -38.0704 255 255 255
-87.654 1.73576 10.3812 255 255 255
-91.7363 -0.613573 64.1734 255 255 255
-87.4491 1.9912 10.3125 255 255 255
-79.7301 2.51084 0.73162 255 255 255
-81.6344 2.70852 4.28229 255 255 255
-84.5268 2.80232 7.53095 255 255 255
-61.6667 5.55285 -62.6576 255 255 255
-80.8257 3.27904 3.20212 255 255 255
54.3688 2.98657 25.6102 255 255 255
98.5504 5.20782 -3.38853 255 255 255
98.4976 5.20328 -3.32735 255 255 255
-84.7297 3.46364 7.77949 255 255 255
-71.7791 5.06921 -20.3972 255 255 255
-98.5163 3.26629 15.4426 255 255 255
-87.8874 3.64446 10.6023 255 255 255
-87.8874 3.64446 10.6023 255 255 255
-88.1831 3.65084 10.8201 255 255 255
-88.1903 3.67441 10.6126 255 255 255
-90.8774 4.0092 12.1313 255 255 255
-95.0681 4.07146 14.2666 255 255 255
-102.71 4.06379 16.2932 255 255 255
-38.9014 8.17059 -41.5786 255 255 255
-61.6859 12.7925 -99.9042 255 255 255
-42.4984 10.3974 -50.2194 255 255 255
-83.9212 6.87649 7.05981 255 255 255
-58.5002 13.9971 -92.5625 255 255 255
94.6876 10.8142 -14.9311 255 255 255
-53.1504 13.8932 -76.0666 255 255 255
-52.3485 14.0072 -75.6806 255 255 255
-54.1554 13.6298 -77.1806 255 255 255
-87.5514 7.68857 10.1478 255 255 255
-102.464 7.12072 16.3782 255 255 255
-51.0034 14.3125 -71.242 255 255 255
-50.4226 14.8277 -71.8614 255 255 255
-43.9334 14.8657 -58.3433 255 255 255
-101.043 8.51786 16.0731 255 255 255
-26.5652 11.9294 -15.0349 255 255 255
70.3746 15.0019 -25.1174 255 255 255
-36.4216 15.7833 -56.0667 255 255 255
-5.85654 11.8247 -0.965213 255 255 255
-77.8167 10.97 -2.43598 255 255 255
-58.5584 18.8577 -94.1999 255 255 255
86.1002 14.765 -11.2369 255 255 255
-48.5807 17.6636 -70.7426 255 255 255
83.9713 15.6344 -13.3006 255 255 255
-94.5375 10.3144 13.9884 255 255 255
-29.8579 15.4714 -27.3036 255 255 255
-36.9821 18.1862 -54.7567 255 255 255
-78.2279 13.0991 -1.97177 255 255 255
-116.287 11.2339 14.4864 255 255 255
-19.5193 16.7602 -26.9487 255 255 255
-87.291 12.7983 10.2294 255 255 255
-17.0548 18.1061 -28.5734 255 255 255
-17.3264 18.3649 -27.8079 255 255 255
-87.6053 13.3712 10.3685 255 255 255
-99.9939 12.8434 15.7333 255 255 255
-88.9463 13.9075 11.1371 255 255 255
-107.069 15.7928 1.81427 255 255 255
-86.5712 14.7445 9.7201 255 255 255
-109.066 13.9118 15.1999 255 255 255
-95.0331 14.341 14.181 255 255 255
-89.3292 15.124 11.507 255 255 255
-90.9355 15.1684 12.546 255 255 255
-88.4913 15.3864 11.0061 255 255 255
-88.9414 15.3865 11.4685 255 255 255
-119.639 14.6024 14.0018 255 255 255
-96.1404 15.0403 15.0653 255 255 255
-96.1404 15.0403 15.0653 255 255 255
-82.7449 17.5883 5.09387 255 255 255
-44.1105 27.9586 -74.5898 255 255 255
-108.995 18.2271 14.3288 255 255 255
-81.7509 20.8028 4.22399 255 255 255
-87.1458 20.9868 9.54071 255 255 255
-101.581 19.7687 16.0799 255 255 255
-107.016 20.9374 14.9744 255 255 255
-107.033 21.0615 14.1873 255 255 255
-86.7111 22.9594 9.47485 255 255 255
-87.132 23.3489 8.76393 255 255 255
-92.0846 23.391 11.9016 255 255 255
-86.4956 24.3149 8.99462 255 255 255
-93.1801 23.4474 13.5316 255 255 255
-95.1698 23.621 12.8067 255 255 255
-95.63 32.3016 -45.213 255 255 255
-95.761 23.4952 13.8044 255 255 255
-95.3061 23.7605 13.7338 255 255 255
-97.5879 23.6146 14.2843 255 255 255
-95.2854 24.7222 12.4898 255 255 255
-81.4712 26.7407 3.39246 255 255 255
-102.351 25.401 16.0911 255 255 255
-102.439 25.5001 15.3252 255 255 255
-108.133 25.928 12.1791 255 255 255
-108.76 25.8057 12.8948 255 255 255
-113.431 25.581 14.2877 255 255 255
-111.659 25.6616 14.2361 255 255 255
-102.239 25.9462 15.7087 255 255 255
-86.7668 27.7408 9.62308 255 255 255
-86.2394 27.9651 8.76707 255 255 255
-101.147 27.055 15.9242 255 255 255
-93.3634 27.8859 14.4225 255 255 255
-101.476 28.7566 14.6992 255 255 255
-101.201 28.815 15.0636 255 255 255
-106.819 28.9253 14.8958 255 255 255
-110.551 29.4637 15.9259 255 255 255
-105.284 30.0206 16.6441 255 255 255
-79.0119 38.4086 -21.7092 255 255 255
-81.7768 33.8773 3.71225 255 255 255
-108.534 31.0315 14.536 255 255 255
-106.717 32.1008 15.1343 255 255 255
-69.4913 -15.6721 162.927 255 255 255
-56.8096 -15.8565 123.574 255 255 255
-6.73017 -18.3529 0.163099 255 255 255
3.0475 -17.8131 -7.13452 255 255 255
-82.183 -14.5514 3.87513 255 255 255
-81.9426 -12.2128 4.9856 255 255 255
-82.2414 -12.1928 5.45696 255 255 255
-102.722 -9.77445 16.7733 255 255 255
-102.722 -9.77445 16.7733 255 255 255
-95.5116 -9.5603 14.3956 255 255 255
-87.3227 -9.28347 10.0572 255 255 255
70.8842 -10.9199 28.7728 255 255 255
45.4002 -9.41925 16.3278 255 255 255
46.6135 -9.24458 14.9365 255 255 255
89.6325 -9.48198 17.0678 255 255 255
-81.9171 -6.69662 4.69784 255 255 255
89.1587 -7.69756 17.6654 255 255 255
-81.9035 -5.24485 4.52557 255 255 255
-106.382 -5.14018 17.6468 255 255 255
62.0572 -5.69416 27.0652 255 255 255
63.5258 -5.67843 27.4877 255 255 255
-94.2169 -4.58315 14.6892 255 255 255
-95.6811 -4.40118 15.3637 255 255 255
-82.7632 -3.88588 5.7316 255 255 255
-82.0498 -3.82679 5.02866 255 255 255
7.44175 -3.65518 -11.8247 255 255 255
-79.9199 -3.42596 2.56663 255 255 255
89.8743 -4.08998 16.9242 255 255 255
89.8743 -4.08998 16.9242 255 255 255
-97.7674 -3.15719 15.7421 255 255 255
58.7504 -1.85862 24.4229 255 255 255
57.5716 -1.74276 23.8866 255 255 255
-78.3447 -0.63908 -0.89014 255 255 255
-78.3447 -0.63908 -0.89014 255 255 255
-82.0139 -0.341495 4.71273 255 255 255
-82.0141 -0.341223 4.72343 255 255 255
-87.6848 -0.423071 10.2303 255 255 255
-78.6102 0.655395 -1.9699 255 255 255
-94.5451 0.196996 14.336 255 255 255
86.3493 1.20119 11.9894 255 255 255
-87.6758 1.33167 10.4585 255 255 255
45.84 1.49428 21.7742 255 255 255
-87.2262 1.53621 9.97894 255 255 255
47.8214 1.95527 19.133 255 255 255
-101.364 1.54553 16.4862 255 255 255
-79.3408 2.36228 0.846925 255 255 255
-102.666 1.69719 16.6429 255 255 255
-57.378 7.79541 -88.6308 255 255 255
-97.6428 3.36283 15.2422 255 255 255
-97.663 3.54291 15.3932 255 255 255
0.58506 5.23983 -3.77789 255 255 255
59.2722 5.86845 -1.43491 255 255 255
-94.9888 3.87311 14.4553 255 255 255
-103.304 3.84875 16.4456 255 255 255
-101.429 4.01527 16.8741 255 255 255
71.2421 8.68869 -26.2162 255 255 255
81.4545 8.3957 -17.2251 255 255 255
81.9329 8.53424 -19.6383 255 255 255
-49.2646 10.4183 -65.2684 255 255 255
-40.1989 9.99635 -46.3898 255 255 255
-42.0142 10.195 -49.2434 255 255 255
-39.2849 10.307 -43.3272 255 255 255
93.8593 10.0019 -9.3572 255 255 255
91.6343 10.5114 -16.7022 255 255 255
-10.2009 7.91493 1.918 255 255 255
84.563 10.748 -15.8236 255 255 255
92.2589 10.7309 -15.4538 255 255 255
-43.3078 12.3132 -53.5027 255 255 255
79.6142 11.5999 -17.7836 255 255 255
-95.2109 7.56317 14.306 255 255 255
-19.9674 10.9804 -5.2732 255 255 255
-52.1075 16.1267 -75.5565 255 255 255
-39.9904 15.2748 -53.1788 255 255 255
-71.9096 12.2616 -20.7214 255 255 255
-55.929 18.3322 -87.9101 255 255 255
-10.4269 12.4485 1.26763 255 255 255
-97.4663 10.1773 14.9573 255 255 255
-116.409 10.3245 14.5515 255 255 255
-34.1778 2.43477 118.77 255 255 255
-98.2897 10.6331 15.3996 255 255 255
-52.3487 19.4333 -74.8385 255 255 255
-78.0949 12.6229 -2.09917 255 255 255
-41.913 18.9749 -61.5196 255 255 255
-49.8101 20.177 -69.1347 255 255 255
-87.4767 12.2001 10.215 255 255 255
-40.5379 19.8765 -59.7116 255 255 255
-40.5163 20.1104 -59.4076 255 255 255
-83.4088 13.331 5.98468 255 255 255
-81.9395 13.686 4.80013 255 255 255
-85.0393 13.3658 7.67021 255 255 255
-20.3688 18.0015 -26.2081 255 255 255
-76.5906 14.9921 -3.53114 255 255 255
-94.1471 12.9904 13.7569 255 255 255
-91.102 13.7348 11.4455 255 255 255
-95.5384 11.3672 28.6598 255 255 255
-91.2539 14.8634 12.9729 255 255 255
-112.466 14.4938 15.1231 255 255 255
-81.8845 16.167 6.80017 255 255 255
-101.501 18.288 15.8189 255 255 255
-108.335 21.7609 -11.8854 255 255 255
-81.001 20.6777 3.32625 255 255 255
-88.832 20.5004 9.873 255 255 255
-102.315 19.5425 15.8165 255 255 255
-81.8088 21.8717 5.21802 255 255 255
-87.1665 21.3957 9.81641 255 255 255
-78.6201 23.7947 -2.23904 255 255 255
-79.0815 23.7441 -0.81847 255 255 255
-79.9762 23.8846 0.435528 255 255 255
-115.879 23.8684 13.4761 255 255 255
-110.562 23.9923 14.6292 255 255 255
-115.699 24.3856 13.4545 255 255 255
-109.937 24.9584 12.6356 255 255 255
-101.206 24.7999 15.9425 255 255 255
-101.43 24.8156 15.8902 255 255 255
-112.177 24.9865 14.4744 255 255 255
-93.8283 25.902 13.2279 255 255 255
-81.889 29.0946 2.6568 255 255 255
-108.259 29.4287 12.1827 255 255 255
-94.8314 13.8001 104.684 255 255 255
-106.477 31.3385 14.8195 255 255 255
-107.062 31.5388 15.04 255 255 255
-99.0988 35.1946 2.14983 255 255 255
165.188 7.04595 -275.337 255 255 255
-17.1147 -16.717 116.22 255 255 255
59.3813 -13.2486 -77.3628 255 255 255
45.2574 -6.33486 16.9552 255 255 255
154.683 16.9105 -260.843 255 255 255
154.683 16.9105 -260.843 255 255 255
77.1745 -17.812 -102.33 255 255 255
211.533 -3.5954 -340.217 255 255 255
214.763 -0.868028 -351.528 255 255 255
155.12 6.55471 -257.018 255 255 255
49.2192 -17.3961 21.8132 255 255 255
49.2192 -17.3961 21.8132 255 255 255
216.786 5.19013 -352.327 255 255 255
219.626 5.64141 -346.245 255 255 255
48.7058 -9.80739 21.3545 255 255 255
48.5667 -17.0442 20.8726 255 255 255
58.4012 -10.8113 -76.8724 255 255 255
157.04 4.77881 -256.715 255 255 255
49.4383 -3.90474 21.869 255 255 255
78.1909 18.3112 -121.647 255 255 255
46.9559 -11.6212 18.7006 255 255 255
46.9972 -11.6389 18.6111 255 255 255
209.163 7.16822 -342.464 255 255 255
78.8976 7.54422 -115.585 255 255 255
47.056 -3.98941 19.478 255 255 255
48.5544 -0.126978 20.2092 255 255 255
214.538 7.5902 -348.547 255 255 255
154.909 4.79548 -256.227 255 255 255
48.5742 -9.53643 20.6211 255 255 255
159.816 10.5344 -262.642 255 255 255
46.5153 -7.44837 14.3295 255 255 255
48.8469 -6.06797 21.3574 255 255 255
48.5564 -17.4803 22.0883 255 255 255
48.5509 -17.478 22.088 255 255 255
47.7566 -10.3522 20.1483 255 255 255
75.3783 -15.2421 25.2137 255 255 255
57.1739 -14.226 21.4589 255 255 255
77.6818 1.45099 -109.033 255 255 255
-27.8759 9.38239 -24.6717 255 255 255
-33.4584 2.66229 -37.6393 255 255 255
-36.3225 3.82175 -37.2281 255 255 255
-36.3225 3.82175 -37.2281 255 255 255
86.129 11.3194 -21.2376 255 255 255
-40.6026 21.2262 -66.8222 255 255 255
-84.8478 -18.4778 140.002 255 255 255
68.8369 -15.0778 27.9101 255 255 255
155.048 -8.34516 -36.9757 255 255 255
-30.6335 -2.6553 -34.5761 255 255 255
-29.8009 2.45801 -38.039 255 255 255
-28.307 3.80191 -31.4504 255 255 255
-31.8174 8.38653 -41.2955 255 255 255
91.1112 8.80552 -15.6052 255 255 255
-26.5808 17.8074 -21.3973 255 255 255
-111.192 -9.65292 182.07 255 255 255
60.2663 -20.1379 27.1538 255 255 255
65.4983 -4.11454 -89.3642 255 255 255
59.2618 -3.13205 24.4807 255 255 255
-29.7405 1.02511 -34.9941 255 255 255
-40.6815 5.98916 -47.2175 255 255 255
78.1405 8.83216 -11.5055 255 255 255
89.5501 9.63245 -21.4683 255 255 255
89.2858 11.9114 -17.9394 255 255 255
-25.8594 16.3928 -29.4611 255 255 255
-30.2645 16.5076 -27.9722 255 255 255
-2.34669 17.8578 -29.1799 255 255 255
17.9089 -18.4671 -22.5341 255 255 255
16.1053 -13.5147 -19.5755 255 255 255
52.615 -8.62356 23.8729 255 255 255
61.2163 -4.00386 28.6314 255 255 255
-39.2361 -1.82682 -51.2926 255 255 255
-30.7493 -1.24351 -33.0855 255 255 255
-36.0929 0.556782 -49.6016 255 255 255
28.4039 -0.0882877 -34.4108 255 255 255
-30.3545 2.09204 -29.5138 255 255 255
-30.3545 2.09204 -29.5138 255 255 255
159.469 4.8429 -45.6146 255 255 255
-43.7115 6.01456 -53.5665 255 255 255
-41.7489 7.58742 -50.0747 255 255 255
-47.3536 8.86484 -62.4033 255 255 255
87.989 13.9282 -19.2818 255 255 255
-29.9967 16.4553 -55.8959 255 255 255
-85.4885 -15.1892 183.385 255 255 255
-85.4885 -15.1892 183.385 255 255 255
-87.9647 -16.9799 143.036 255 255 255
89.1375 -21.7356 14.6868 255 255 255
61.9148 -13.4392 -80.1067 255 255 255
-43.7077 2.48717 -52.0658 255 255 255
50.5618 0.980202 24.0008 255 255 255
-38.708 4.53647 -42.1796 255 255 255
-36.1737 4.51072 -38.4081 255 255 255
76.4196 8.02765 -112.709 255 255 255
86.0226 7.22613 -21.0131 255 255 255
86.0226 7.22613 -21.0131 255 255 255
-38.4665 9.68693 -53.1695 255 255 255
-32.6916 11.0988 -43.2607 255 255 255
-48.7816 14.2439 -65.3637 255 255 255
-26.0548 19.4648 -25.7823 255 255 255
-114.346 -10.7724 186.376 255 255 255
-60.7067 -12.3877 123.306 255 255 255
-2.23525 -19.7984 -1.93668 255 255 255
90.3935 -22.0861 15.5821 255 255 255
91.0699 -18.1195 15.5814 255 255 255
91.0699 -18.1195 15.5814 255 255 255
-14.0767 -8.46868 2.26502 255 255 255
61.2676 -9.19646 23.7849 255 255 255
124.616 -10.2233 -14.8331 255 255 255
64.8631 -6.23603 23.9611 255 255 255
-42.8632 -2.82798 119.244 255 255 255
-41.5859 -2.67503 -45.0714 255 255 255
-41.6923 -1.16489 120.467 255 255 255
-35.4544 -0.902066 121.402 255 255 255
-29.6879 -0.553113 -32.8013 255 255 255
-48.0287 3.48494 -63.7664 255 255 255
53.675 1.88595 21.0485 255 255 255
89.7144 2.96253 8.28656 255 255 255
93.6298 12.7222 -17.9657 255 255 255
-31.4394 12.2041 -26.0214 255 255 255
-8.70697 17.5247 -22.7549 255 255 255
-16.2766 18.2367 -29.0633 255 255 255
-34.6749 23.9409 -71.145 255 255 255
90.9328 -22.5986 15.7628 255 255 255
90.9328 -22.5986 15.7628 255 255 255
56.2771 -19.7574 25.6143 255 255 255
-43.0333 -9.62294 119.646 255 255 255
-43.0333 -9.62294 119.646 255 255 255
7.80556 -17.7457 -11.0289 255 255 255
10.0141 -17.8185 -12.7667 255 255 255
91.1142 -12.729 14.6731 255 255 255
55.0138 -9.17116 25.905 255 255 255
21.3293 -5.16505 -25.8963 255 255 255
70.1626 -4.46249 29.4024 255 255 255
-37.5109 -1.9381 -44.9711 255 255 255
-43.8014 -1.43281 119.546 255 255 255
-81.2599 -0.813905 174.099 255 255 255
71.4464 -1.18307 30.0513 255 255 255
-36.1446 1.3645 -45.5407 255 255 255
-39.9072 1.60517 -55.1309 255 255 255
20.7353 2.42833 -25.4678 255 255 255
-42.5737 3.43322 -50.905 255 255 255
53.8836 2.82583 23.6666 255 255 255
-49.9701 5.73104 -69.1392 255 255 255
-30.0171 5.27723 -32.6359 255 255 255
-30.0171 5.27723 -32.6359 255 255 255
-38.2832 8.14915 -41.0119 255 255 255
85.5814 10.4063 -20.7623 255 255 255
-11.1704 9.08788 0.397593 255 255 255
-43.9537 10.8063 -53.8146 255 255 255
-31.2518 11.2262 -23.6216 255 255 255
-31.9511 11.5874 -26.0554 255 255 255
-11.1092 10.8169 0.363691 255 255 255
-11.9191 10.7809 -0.183099 255 255 255
-28.7735 11.8919 -27.9764 255 255 255
-9.38848 11.5629 -0.0671299 255 255 255
-33.5305 17.2305 -58.3763 255 255 255
-29.3755 17.6911 -28.7277 255 255 255
-52.4776 20.1614 -74.8611 255 255 255
-30.143 23.7696 -73.9957 255 255 255
-32.008 23.9404 -73.2758 255 255 255
-37.0664 25.1984 -70.4779 255 255 255
-108.12 -11.2189 176.976 255 255 255
90.8908 -20.6942 15.1727 255 255 255
91.3563 -19.4672 16.0794 255 255 255
67.9015 -14.8464 27.5733 255 255 255
54.9477 -12.3972 20.07 255 255 255
-9.3505 -7.42283 0.664199 255 255 255
27.7275 -8.45959 -33.3134 255 255 255
63.0739 -10.0296 -82.6593 255 255 255
-37.6575 -3.19745 123.226 255 255 255
-43.5168 -1.6144 119.599 255 255 255
-44.0536 -1.60322 119.436 255 255 255
-52.4176 2.74184 -76.7235 255 255 255
-41.7019 4.73509 -48.011 255 255 255
-9.56585 4.00125 0.838242 255 255 255
-30.2376 4.71786 -31.5732 255 255 255
-29.8204 5.19469 -31.1485 255 255 255
152.622 5.48875 -40.6876 255 255 255
154.007 6.06266 -39.1676 255 255 255
157.83 8.55554 -44.4363 255 255 255
156.285 9.6461 -41.1633 255 255 255
161.483 9.91013 -46.1512 255 255 255
82.9122 9.71187 -22.1698 255 255 255
94.4966 10.2937 -16.2158 255 255 255
84.5322 10.9214 -21.6956 255 255 255
-44.5023 12.0173 -56.2208 255 255 255
-53.8118 16.2576 -79.3193 255 255 255
-15.821 17.7855 -28.6732 255 255 255
-15.9459 17.754 -26.1124 255 255 255
-49.0318 23.4642 -75.8656 255 255 255
-5.35469 -20.72 0.856597 255 255 255
65.5049 -26.9526 -84.9085 255 255 255
-8.46839 -18.4548 0.323678 255 255 255
53.9408 -19.8978 26.1222 255 255 255
50.3626 -19.716 21.8215 255 255 255
7.9604 -19.2146 -10.6847 255 255 255
14.4565 -19.051 -17.229 255 255 255
53.4331 -18.6183 25.1254 255 255 255
50.7299 -15.9593 21.5649 255 255 255
-41.1047 -7.56268 121.794 255 255 255
-9.84692 -10.5942 1.56564 255 255 255
66.0631 -5.58843 -88.1912 255 255 255
30.584 -4.28863 -37.1426 255 255 255
22.7969 -3.30487 -27.0661 255 255 255
38.0042 -3.30052 -47.9634 255 255 255
68.7585 -0.669912 26.4257 255 255 255
-42.5771 1.5905 -49.9685 255 255 255
13.4498 1.15369 -17.0845 255 255 255
-30.4004 1.92716 -24.1392 255 255 255
-40.0809 2.19267 120.252 255 255 255
-41.6246 7.04512 -48.5682 255 255 255
-38.7045 8.08294 -49.0184 255 255 255
-30.7348 7.87034 -34.1971 255 255 255
154.484 9.74305 -44.4655 255 255 255
-10.87 8.51185 0.733317 255 255 255
-10.866 8.51593 0.728391 255 255 255
154.448 19.6277 -260.996 255 255 255
-29.5918 10.0881 -19.51 255 255 255
78.6015 15.2628 -122.058 255 255 255
-29.4359 10.9801 -20.6082 255 255 255
-30.6961 12.4703 -30.3027 255 255 255
-6.27518 11.7897 -1.22852 255 255 255
-50.2558 14.4047 -69.4939 255 255 255
-2.19154 14.2438 -5.87279 255 255 255
-44.2112 20.6668 -67.4235 255 255 255
-44.2112 20.6668 -67.4235 255 255 255
-9.72621 -17.2765 2.10795 255 255 255
7.77925 -17.9894 -10.5116 255 255 255
49.7712 -16.8179 22.2708 255 255 255
-11.9238 -10.5881 1.21148 255 255 255
54.447 -11.828 23.9688 255 255 255
-42.0255 -5.90489 120.641 255 255 255
35.6511 -11.7124 -44.8321 255 255 255
-37.77 -4.93611 136.874 255 255 255
50.6866 -9.8902 -65.8912 255 255 255
63.419 -8.07615 24.9612 255 255 255
60.8726 -5.97827 22.8174 255 255 255
12.3484 -2.35112 -16.5235 255 255 255
-36.6304 -1.38375 121.144 255 255 255
-40.4174 7.74138 -46.5636 255 255 255
84.8211 7.41467 -20.5648 255 255 255
84.7394 7.38919 -17.7687 255 255 255
86.2846 7.78625 -21.3954 255 255 255
156.601 8.72858 -38.5122 255 255 255
156.014 9.0956 -39.5134 255 255 255
-33.9686 8.61711 -42.1817 255 255 255
-29.7547 8.67983 -20.5113 255 255 255
-38.8173 10.1184 -52.5774 255 255 255
84.3885 12.1144 -22.961 255 255 255
-45.5198 12.2118 -56.2363 255 255 255
98.4844 14.5013 -19.0847 255 255 255
88.3592 15.5751 -22.8951 255 255 255
-18.1329 17.8167 -25.6238 255 255 255
-28.5636 18.1247 -25.1513 255 255 255
-91.6087 -15.7755 152.015 255 255 255
-5.48704 -21.0005 0.818836 255 255 255
4.62426 -19.0674 -6.96003 255 255 255
52.7431 -19.2591 25.176 255 255 255
69.8423 -17.0028 29.5814 255 255 255
-39.8545 -8.31146 122.451 255 255 255
-42.3475 -6.43279 120.755 255 255 255
-42.3475 -6.43279 120.755 255 255 255
17.9996 -12.2605 -22.06 255 255 255
51.8822 -14.6143 -67.9531 255 255 255
-6.25634 -10.7444 0.762261 255 255 255
-42.1545 -6.14401 120.545 255 255 255
65.089 -11.895 26.816 255 255 255
62.6414 -11.5904 25.017 255 255 255
62 -11.61 24.0848 255 255 255
61.8648 -11.1826 25.4446 255 255 255
65.1685 -10.4716 26.5672 255 255 255
3.60876 -6.53207 85.9577 255 255 255
52.9382 -6.04343 24.2501 255 255 255
52.8583 -5.63081 25.7518 255 255 255
53.2821 -5.58438 24.2053 255 255 255
70.5751 -5.28145 29.4302 255 255 255
53.7145 -4.33413 24.8475 255 255 255
60.2419 -2.52557 23.1053 255 255 255
59.5012 -2.49546 21.7862 255 255 255
61.2269 -2.37135 23.3497 255 255 255
61.2269 -2.37135 23.3497 255 255 255
59.3803 -2.1311 21.9317 255 255 255
59.795 -2.02066 22.2439 255 255 255
59.795 -2.02066 22.2439 255 255 255
60.3542 -1.86462 22.4322 255 255 255
60.24 -1.86087 22.5662 255 255 255
60.1853 -1.88004 22.0741 255 255 255
59.1872 -1.88415 22.1282 255 255 255
63.9082 -0.779569 24.0024 255 255 255
68.7848 -0.768623 26.7878 255 255 255
19.7133 -0.560762 78.1465 255 255 255
60.7891 -0.593514 22.0982 255 255 255
53.5229 1.61615 25.2051 255 255 255
53.5831 1.6138 24.5109 255 255 255
90.0804 2.16848 7.44894 255 255 255
-28.9471 3.94383 -32.6271 255 255 255
2.98022 3.43911 -6.69894 255 255 255
-40.8935 3.30994 119.057 255 255 255
3.08219 6.83077 -5.99486 255 255 255
-0.0594476 7.27557 -3.51655 255 255 255
157.102 9.30052 -41.4559 255 255 255
97.3932 10.4187 -13.5178 255 255 255
88.7284 10.7484 -19.5932 255 255 255
102.848 13.6114 -9.82858 255 255 255
91.8619 14.2384 -17.9558 255 255 255
92.9603 15.9456 -20.3513 255 255 255
242.079 28.9087 -151.545 255 255 255
242.079 28.9087 -151.545 255 255 255
-44.5414 -11.955 121.101 255 255 255
7.00629 -18.0992 -10.4381 255 255 255
7.01155 -17.9294 -10.2941 255 255 255
50.4096 -11.1606 22.4261 255 255 255
71.057 -11.6028 29.0524 255 255 255
60.9108 -9.67186 23.1288 255 255 255
48.4964 -9.37448 20.9499 255 255 255
10.4715 -8.48285 -13.3504 255 255 255
65.1101 -7.78299 -85.3395 255 255 255
51.6501 -3.96853 24.0435 255 255 255
37.3218 -2.92122 -46.7172 255 255 255
63.4473 -3.062 24.7178 255 255 255
61.5758 -2.51487 23.7324 255 255 255
61.3506 -2.42372 23.4811 255 255 255
61.3835 -2.12464 23.4462 255 255 255
61.3835 -2.12464 23.4462 255 255 255
60.5073 -1.99873 22.5339 255 255 255
60.5094 -2.00019 22.5328 255 255 255
62.1772 -2.00519 22.8318 255 255 255
61.3469 -1.86948 23.4737 255 255 255
61.2824 -1.8764 23.544 255 255 255
61.0414 -1.85951 23.2747 255 255 255
61.2557 -1.81515 23.3107 255 255 255
60.7763 -1.65558 22.25 255 255 255
61.8489 -1.57314 24.2364 255 255 255
1.75413 -0.563257 -4.85883 255 255 255
80.4834 -0.924657 -112.429 255 255 255
2.49094 -0.372302 -6.08396 255 255 255
0.519061 -0.300228 -3.93335 255 255 255
18.6915 0.437601 -22.2335 255 255 255
23.4706 0.455826 -28.8167 255 255 255
62.0797 -0.276799 22.0384 255 255 255
52.9186 0.132821 22.9854 255 255 255
9.25076 0.894935 -12.9923 255 255 255
88.9727 10.8886 -20.1323 255 255 255
94.172 11.83 -16.1596 255 255 255
153.818 22.2305 -260.143 255 255 255
88.7907 12.3992 -20.7081 255 255 255
94.4462 12.3781 -16.4713 255 255 255
90.8774 14.1638 -17.7736 255 255 255
91.0028 14.3486 -17.67 255 255 255
64.1761 6.92035 118.525 255 255 255
56.8163 -8.08935 102.785 255 255 255
57.978 -8.11504 102.046 255 255 255
55.3862 1.13199 102.658 255 255 255
58.7233 11.8337 117.513 255 255 255
59.2157 -11.1751 105.008 255 255 255
65.7563 -10.3937 122.2 255 255 255
60.329 -7.93319 107.269 255 255 255
60.4072 -7.77496 113.049 255 255 255
65.8049 -5.25199 122.127 255 255 255
51.3441 -2.32384 101.918 255 255 255
51.1093 -2.73329 94.9815 255 255 255
58.3137 -2.1123 102.574 255 255 255
56.7982 -2.0929 103.579 255 255 255
58.6802 -1.94635 108.087 255 255 255
61.9538 -1.82412 111.77 255 255 255
65.9403 0.577264 122.005 255 255 255
56.8699 8.38211 88.2238 255 255 255
68.3955 10.4719 127.658 255 255 255
53.0964 -5.17196 96.9498 255 255 255
52.2703 -5.2363 97.63 255 255 255
58.569 -4.95617 105.358 255 255 255
62.2037 -4.88047 114.626 255 255 255
62.2037 -4.88047 114.626 255 255 255
60.862 -4.92134 109.716 255 255 255
50.6032 0.718501 91.9815 255 255 255
57.1467 0.65638 106.226 255 255 255
67.6537 -0.0269304 124.61 255 255 255
62.5191 0.927361 114.232 255 255 255
62.0809 0.8589 114.408 255 255 255
60.7638 0.798159 109.534 255 255 255
64.2601 4.05861 119.905 255 255 255
64.8941 5.08659 122.568 255 255 255
64.8941 5.08659 122.568 255 255 255
58.2041 6.78355 105.309 255 255 255
55.4305 7.07499 103.987 255 255 255
55.5901 7.12212 103.903 255 255 255
61.2543 6.91776 115 255 255 255
58.5505 8.14873 107.957 255 255 255
62.9967 7.80451 116.876 255 255 255
63.324 7.8717 116.772 255 255 255
60.7615 8.13915 112.281 255 255 255
60.6004 8.06482 112.436 255 255 255
62.8418 -10.5023 108.299 255 255 255
50.3635 -8.1869 88.4655 255 255 255
51.6356 -7.99962 95.1303 255 255 255
63.7812 -7.68126 113.591 255 255 255
63.7812 -7.68126 113.591 255 255 255
50.9027 -1.98298 93.091 255 255 255
58.3407 -1.95122 105.778 255 255 255
61.1363 -1.85129 109.459 255 255 255
61.986 -1.75581 114.509 255 255 255
49.7549 0.475276 85.9771 255 255 255
52.924 0.568639 96.97 255 255 255
65.1079 -0.0275368 119.341 255 255 255
52.0189 1.98705 94.8319 255 255 255
60.4348 2.48545 112.63 255 255 255
54.7218 7.60099 96.1162 255 255 255
-107.519 12.2904 14.8371 255 255 255
66.1958 10.1591 121.823 255 255 255
51.5713 -15.2892 87.3659 255 255 255
49.5624 -15.5026 89.0326 255 255 255
55.845 -11.8732 104.428 255 255 255
52.592 -10.643 94.8187 255 255 255
54.2714 -10.7472 99.0288 255 255 255
63.3061 -7.24263 23.277 255 255 255
54.8049 -4.9902 104.912 255 255 255
50.092 -4.131 88.3903 255 255 255
61.5551 -4.88894 112.093 255 255 255
50.1225 1.58673 88.1636 255 255 255
50.1373 1.61485 88.1471 255 255 255
65.7993 1.43658 120.722 255 255 255
98.7947 12.9036 -12.797 255 255 255
50.5466 5.01736 91.8335 255 255 255
51.0003 4.99127 91.4755 255 255 255
60.7681 6.42412 112.33 255 255 255
63.195 10.5223 117.654 255 255 255
63.195 10.5223 117.654 255 255 255
-39.1962 50.5174 119.062 255 255 255
48.6005 -16.0331 86.6416 255 255 255
51.3157 -15.2795 82.5867 255 255 255
49.2257 -15.2031 84.3154 255 255 255
49.5972 -13.5123 83.7147 255 255 255
68.3797 -12.1978 28.3939 255 255 255
61.0745 -12.0294 112.63 255 255 255
50.2696 -7.9452 99.2147 255 255 255
53.2651 -8.16221 96.8273 255 255 255
50.0249 -5.9492 91.7533 255 255 255
50.0249 -5.9492 91.7533 255 255 255
124.615 -1.63927 10.7817 255 255 255
54.647 0.814468 98.7835 255 255 255
55.1446 1.91736 100.219 255 255 255
52.4561 2.0611 96.6764 255 255 255
51.1567 2.95973 92.7397 255 255 255
66.0195 7.79314 122.181 255 255 255
-96.1046 11.6597 13.153 255 255 255
60.7423 11.5808 106.768 255 255 255
61.9074 11.499 111.583 255 255 255
65.0114 12.06 106.958 255 255 255
63.9663 11.5141 118.658 255 255 255
-108.664 18.5204 15.1465 255 255 255
-41.3589 51.0105 118.177 255 255 255
50.2204 -16.0368 91.5186 255 255 255
50.4423 -16.0525 91.3506 255 255 255
50.0716 -14.2289 93.0312 255 255 255
49.6007 -13.6867 88.8171 255 255 255
49.6595 -13.0292 92.0102 255 255 255
49.3441 -8.85657 84.1154 255 255 255
64.1671 -6.49908 25.4956 255 255 255
121.656 -4.14517 17.1489 255 255 255
121.656 -4.14517 17.1489 255 255 255
177.027 0.0227459 -54.3659 255 255 255
49.9645 -3.80386 91.6406 255 255 255
50.0043 -3.80374 91.6202 255 255 255
75.2133 -0.468696 68.462 255 255 255
36.1965 1.03622 127.634 255 255 255
-57.7039 10.9329 -51.6473 255 255 255
54.1838 5.30512 78.412 255 255 255
66.1209 3.07953 121.565 255 255 255
66.1209 3.07953 121.565 255 255 255
66.4339 3.03616 127.495 255 255 255
60.2408 2.91289 132.182 255 255 255
62.4285 6.00578 116.38 255 255 255
-22.1322 18.0165 -25.6115 255 255 255
59.0854 10.4692 103.541 255 255 255
58.098 10.3093 106.913 255 255 255
63.9415 9.57976 118.907 255 255 255
60.0705 10.4064 111.365 255 255 255
62.2943 10.486 115.647 255 255 255
64.7215 11.6936 119.658 255 255 255
66.4398 15.4928 97.9364 255 255 255
-104.856 26.5172 14.6329 255 255 255
-113.758 28.6591 13.1056 255 255 255
-35.9173 61.8836 115.286 255 255 255
48.5688 -17.7225 84.9969 255 255 255
49.2968 -17.6636 87.5835 255 255 255
-43.8924 -10.7232 119.31 255 255 255
54.7925 -13.4569 103.622 255 255 255
64.1737 -13.5014 -83.685 255 255 255
46.9749 -12.573 87.7228 255 255 255
60.3433 -13.1844 113.59 255 255 255
61.7218 -13.0299 117.482 255 255 255
120.363 -13.9134 12.8596 255 255 255
-84.43 -9.87648 8.23255 255 255 255
59.5665 -12.2134 118.197 255 255 255
49.8285 -7.57332 91.7661 255 255 255
65.0773 -8.40934 121.262 255 255 255
51.2219 -7.11084 94.0597 255 255 255
51.2219 -7.11084 94.0597 255 255 255
49.3002 -6.3414 87.2689 255 255 255
50.3631 -4.99806 92.4719 255 255 255
49.369 -1.40634 90.525 255 255 255
49.9679 -0.563421 89.8367 255 255 255
49.7879 0.153661 83.6983 255 255 255
49.995 2.38134 91.7643 255 255 255
49.4685 3.20482 86.3858 255 255 255
60.0203 1.92838 111.269 255 255 255
-84.233 6.24377 5.55824 255 255 255
50.2646 3.98705 94.0734 255 255 255
-55.2057 12.6727 -65.3868 255 255 255
53.4028 5.43267 96.6099 255 255 255
53.4028 5.43267 96.6099 255 255 255
-52.0838 21.6174 -74.1866 255 255 255
-106.358 10.452 15.871 255 255 255
57.1235 10.7218 103.707 255 255 255
65.148 11.0563 120.599 255 255 255
60.4125 13.5903 102.098 255 255 255
-85.3009 19.4201 7.38197 255 255 255
-91.4399 19.7954 12.8261 255 255 255
-91.4014 28.4952 8.95347 255 255 255
-106.329 32.455 13.0829 255 255 255
-106.329 32.455 13.0829 255 255 255
-42.0379 50.7176 116.732 255 255 255
-37.8932 58.2087 117.103 255 255 255
-53.3107 -15.1257 177.704 255 255 255
50.2652 -17.5836 92.7272 255 255 255
49.5318 -16.7244 90.0148 255 255 255
49.4584 -15.9226 86.4195 255 255 255
49.3042 -15.9052 86.5402 255 255 255
49.4995 -13.9624 91.399 255 255 255
47.9284 -13.5325 87.1328 255 255 255
49.9404 -11.6193 87.8728 255 255 255
49.9655 -11.5693 89.23 255 255 255
49.5224 -10.9912 88.9267 255 255 255
91.3459 -7.17902 15.2386 255 255 255
150.439 -6.38556 -15.4287 255 255 255
-79.1518 -4.95177 -22.2997 255 255 255
50.8179 -7.24226 93.2881 255 255 255
54.7988 -7.12549 100.974 255 255 255
53.4055 -6.87204 97.8177 255 255 255
53.4055 -6.87204 97.8177 255 255 255
49.162 -6.41492 85.0469 255 255 255
54.799 -6.86694 100.156 255 255 255
51.5547 -5.55944 94.038 255 255 255
52.3339 -5.5359 96.0481 255 255 255
53.5425 -5.46398 98.0982 255 255 255
54.6097 -5.39081 99.9552 255 255 255
28.7248 -0.0699089 -35.0155 255 255 255
53.9727 -3.68026 101.35 255 255 255
49.9812 -2.66411 82.9964 255 255 255
49.7871 -2.59697 83.127 255 255 255
49.4772 2.3526 85.7845 255 255 255
49.4772 2.3526 85.7845 255 255 255
51.606 2.13064 93.6393 255 255 255
-79.4723 7.07689 0.525622 255 255 255
-55.4781 17.2803 -85.6399 255 255 255
60.0826 4.95351 111.378 255 255 255
50.0189 6.89847 85.6375 255 255 255
50.0189 6.89847 85.6375 255 255 255
62.1412 5.0517 115.311 255 255 255
61.9591 5.02534 115.343 255 255 255
-18.1595 16.8452 -21.8973 255 255 255
-98.1683 10.3389 14.7608 255 255 255
-89.8872 13.3275 10.7449 255 255 255
64.4685 12.8846 114.405 255 255 255
-82.3342 20.3081 4.28977 255 255 255
-38.8359 51.6148 117.171 255 255 255
-39.6819 51.7897 116.565 255 255 255
-38 56.4879 115.569 255 255 255
-38.2925 57.0167 115.451 255 255 255
-38.2147 57.8304 115.335 255 255 255
-37.7441 59.088 114.392 255 255 255
-60.5294 -14.6843 124.259 255 255 255
4.26429 -20.1429 -8.41341 255 255 255
63.2137 -18.1367 26.5145 255 255 255
49.8051 -16.5088 93.0967 255 255 255
49.8423 -15.9738 84.8628 255 255 255
49.9158 -15.9175 87.2595 255 255 255
-43.6461 -11.4105 120.28 255 255 255
-44.4842 -11.4004 120.612 255 255 255
91.2754 -17.2343 15.3101 255 255 255
50.0479 -15.0867 93.0252 255 255 255
49.6393 -15.1375 93.3273 255 255 255
50.4858 -14.6605 93.4417 255 255 255
49.4449 -14.2735 86.8326 255 255 255
90.1797 -14.9844 15.2645 255 255 255
50.1159 -13.5954 92.8437 255 255 255
48.8962 -13.5729 90.9955 255 255 255
55.3271 -13.1754 102.31 255 255 255
-39.612 -10.0931 122.436 255 255 255
63.9547 -13.1098 119.186 255 255 255
65.3696 -13.1 121.328 255 255 255
50.5701 -11.9554 83.0725 255 255 255
66.9275 -12.8281 122.347 255 255 255
6.55531 -10.153 -11.0219 255 255 255
54.2418 -11.4561 101.225 255 255 255
51.5174 -10.627 94.2217 255 255 255
61.4787 -9.84766 24.3823 255 255 255
146.182 -12.6125 84.5921 255 255 255
66.765 -10.5187 122.416 255 255 255
122.329 -6.94543 17.4178 255 255 255
158.807 -5.69641 -43.8459 255 255 255
49.0229 -7.08604 85.4057 255 255 255
160.957 -2.07119 -44.7044 255 255 255
64.2367 -6.10019 118.515 255 255 255
64.2367 -6.10019 118.515 255 255 255
123.218 -2.54727 12.759 255 255 255
52.1796 -4.3946 94.1913 255 255 255
52.2361 -4.39013 94.1616 255 255 255
29.4225 -4.45542 116.354 255 255 255
0.424789 0.125037 -4.00376 255 255 255
49.7705 -3.4881 90.8198 255 255 255
49.5176 -1.20609 90.4033 255 255 255
94.4268 4.11657 7.42804 255 255 255
50.6581 -1.0643 95.2033 255 255 255
52.1165 -0.989625 95.6443 255 255 255
31.3989 -0.302524 101.21 255 255 255
54.549 -0.373201 99.8492 255 255 255
110.274 -0.0711389 99.259 255 255 255
51.2353 2.08476 93.0088 255 255 255
54.1346 3.88078 78.9011 255 255 255
53.2365 3.25423 95.4303 255 255 255
50.3316 3.89669 85.0788 255 255 255
49.5635 5.06865 85.8687 255 255 255
49.5635 5.06865 85.8687 255 255 255
50.6511 5.41584 89.7861 255 255 255
54.6595 6.69883 77.9573 255 255 255
51.327 5.51377 92.4403 255 255 255
58.4389 4.40118 109.003 255 255 255
59.891 4.45291 112.156 255 255 255
52.012 7.20677 81.2483 255 255 255
63.2213 6.27268 109.546 255 255 255
54.6854 7.54971 97.6788 255 255 255
54.5319 9.34504 90.4202 255 255 255
-108.554 12.6528 -2.82488 255 255 255
-85.7707 19.3371 -46.5716 255 255 255
-44.0578 23.0348 -64.9542 255 255 255
60.6541 10.0209 112.422 255 255 255
61.7468 10.7661 111.281 255 255 255
63.7234 10.6448 117.641 255 255 255
61.6149 12.8752 104.909 255 255 255
62.0146 12.8331 110.161 255 255 255
64.3111 13.0889 108.845 255 255 255
62.952 12.7959 112.179 255 255 255
63.5838 12.957 113.525 255 255 255
69.2122 12.0454 129.164 255 255 255
69.1212 12.0504 129.173 255 255 255
64.4175 18.1051 120.035 255 255 255
-38.4314 46.8661 113.522 255 255 255
-37.7206 51.4583 118.323 255 255 255
-37.9363 61.8582 114.872 255 255 255
-36.831 63.0063 115.635 255 255 255
-62.8932 -15.7194 125.11 255 255 255
-62.0056 -15.4045 125.041 255 255 255
-62.0056 -15.4045 125.041 255 255 255
48.5759 -18.3309 88.4168 255 255 255
49.0986 -16.852 86.6415 255 255 255
54.357 -16.8347 98.679 255 255 255
48.1615 -16.5576 92.8003 255 255 255
50.9376 -16.5906 94.3947 255 255 255
-102.863 -15.8116 -62.1555 255 255 255
50.3891 -16.1816 93.4695 255 255 255
-100.967 -13.4497 16.7117 255 255 255
50.4616 -14.4531 81.7828 255 255 255
50.0167 -14.1418 90.3443 255 255 255
-8.56346 -12.4908 2.59094 255 255 255
-85.1382 -11.0558 7.68234 255 255 255
55.5566 -13.0667 104.921 255 255 255
49.8926 -12.5729 87.3093 255 255 255
-83.05 -10.3972 5.53212 255 255 255
66.5084 -13.0559 123.101 255 255 255
66.5084 -13.0559 123.101 255 255 255
66.5084 -13.0559 123.101 255 255 255
48.2941 -12.1413 88.4379 255 255 255
66.8421 -12.7179 123.365 255 255 255
49.3638 -11.1185 87.7014 255 255 255
50.9816 -10.2885 22.8258 255 255 255
25.5513 -9.32886 -30.9531 255 255 255
61.7329 -9.81524 25.2549 255 255 255
49.3248 -10.3066 87.7252 255 255 255
71.4024 -9.78021 28.4028 255 255 255
57.9219 -8.18756 -77.1125 255 255 255
-11.8746 -6.70007 2.925 255 255 255
65.4295 -9.72463 121.234 255 255 255
121.212 -8.44866 19.2289 255 255 255
-6.32595 -5.9104 1.82303 255 255 255
-8.11691 -5.92557 1.60306 255 255 255
49.9118 -8.12823 89.2873 255 255 255
155.048 -6.73038 -40.8757 255 255 255
22.6163 -5.21808 -28.0015 255 255 255
120.464 -6.30493 17.113 255 255 255
70.0426 -4.4897 29.5258 255 255 255
51.6016 -5.39314 93.8092 255 255 255
57.4015 -1.3115 23.7635 255 255 255
55.1134 -4.28964 101.489 255 255 255
49.7601 -3.33516 89.4725 255 255 255
49.7574 -3.17014 89.9286 255 255 255
17.3123 -0.568807 62.6697 255 255 255
-0.702143 2.37123 -2.32212 255 255 255
49.5713 -0.83157 83.9736 255 255 255
49.265 -0.954799 88.6371 255 255 255
49.9692 -1.11077 92.2444 255 255 255
150.768 6.56875 -40.1835 255 255 255
49.21 -0.343299 83.9833 255 255 255
60.0817 0.0841307 77.2951 255 255 255
63.1683 -2.24188 119.059 255 255 255
52.2371 -0.967538 96.5973 255 255 255
63.7265 -2.22551 120.836 255 255 255
52.8568 -0.978171 98.565 255 255 255
51.0236 -0.495979 93.6882 255 255 255
49.5617 2.31135 87.8196 255 255 255
53.3798 1.93102 97.1492 255 255 255
62.3273 1.77494 116.164 255 255 255
-86.1123 6.61719 7.4115 255 255 255
-87.1129 6.79002 9.45091 255 255 255
48.8319 5.1986 85.0888 255 255 255
49.5772 5.25045 85.1127 255 255 255
-3.92118 10.6837 -0.268848 255 255 255
69.9068 2.6332 128.94 255 255 255
-25.487 10.9111 -8.66162 255 255 255
57.9054 4.29953 106.185 255 255 255
50.1462 5.81302 89.5119 255 255 255
-24.1006 12.2297 -12.4536 255 255 255
-78.1383 9.40178 -2.41178 255 255 255
64.1466 4.20205 117.668 255 255 255
53.0939 7.52881 93.2344 255 255 255
51.1003 7.83908 91.3407 255 255 255
-82.6581 12.221 4.78431 255 255 255
-82.6581 12.221 4.78431 255 255 255
60.0141 8.1533 111.414 255 255 255
-87.9207 11.9495 10.0837 255 255 255
-87.8495 12.0568 9.55006 255 255 255
64.1301 9.47487 119.487 255 255 255
65.6593 11.0131 117.086 255 255 255
58.4854 12.6187 103.755 255 255 255
65.2183 11.9368 121.114 255 255 255
67.3645 12.0053 125.42 255 255 255
-85.597 18.1419 7.36835 255 255 255
51.1886 17.0546 82.7685 255 255 255
70.546 14.1734 117.099 255 255 255
65.3998 13.6036 122.814 255 255 255
99.6127 16.8626 107.666 255 255 255
65.6181 14.8311 116 255 255 255
-83.383 21.5335 6.62239 255 255 255
-82.3883 23.1214 3.82376 255 255 255
-89.5727 21.8884 11.4085 255 255 255
-101.781 11.5357 83.1912 255 255 255
-98.0909 26.3039 11.8814 255 255 255
-87.0448 28.3394 8.36036 255 255 255
-39.0021 44.6483 116.795 255 255 255
-35.2859 46.1986 117.584 255 255 255
-38.2342 57.2982 115.761 255 255 255
-38.0353 59.1707 113.947 255 255 255
-38.3386 59.3651 114.191 255 255 255
-37.6144 62.3786 114.938 255 255 255
-37.3982 62.5662 114.677 255 255 255
-37.738 62.7383 114.938 255 255 255
50.5408 -16.1797 82.4991 255 255 255
49.9222 -15.9353 92.9358 255 255 255
51.2359 -15.9004 94.415 255 255 255
50.1232 -15.6878 93.1543 255 255 255
-43.5035 -11.1484 119.651 255 255 255
49.6174 -14.8466 90.1704 255 255 255
48.7829 -14.2197 85.7708 255 255 255
48.8781 -13.8201 87.9245 255 255 255
-81.6682 -10.7873 4.63943 255 255 255
49.6674 -12.6554 83.1243 255 255 255
49.5808 -12.6558 83.1754 255 255 255
49.7767 -12.3142 83.1044 255 255 255
-87.8801 -9.7975 9.45053 255 255 255
-8.30766 -10.3157 2.0064 255 255 255
19.4531 -6.55162 -23.4655 255 255 255
59.9592 -7.1466 22.1392 255 255 255
60.0839 -9.08427 114.273 255 255 255
7.76604 -3.89365 -12.1669 255 255 255
-11.9841 -3.99501 2.80792 255 255 255
122.772 -4.52096 18.3197 255 255 255
50.4891 -5.17615 82.8762 255 255 255
-81.8689 -2.97257 4.14327 255 255 255
-86.3824 -2.35887 9.49375 255 255 255
49.8059 -3.33393 87.6561 255 255 255
49.5521 -3.35474 87.8825 255 255 255
51.7084 -2.13699 95.5001 255 255 255
52.5479 -2.10918 96.816 255 255 255
52.5479 -2.10918 96.816 255 255 255
49.7356 -1.04453 83.0147 255 255 255
49.7627 -1.45995 91.5231 255 255 255
150.999 5.97732 -39.063 255 255 255
51.372 -1.67159 101.504 255 255 255
154.456 6.73192 -41.1278 255 255 255
154.464 6.73692 -41.1301 255 255 255
159.317 6.98489 -44.802 255 255 255
50.0607 -0.222987 87.5109 255 255 255
50.1707 -0.224296 87.4511 255 255 255
-16.4146 3.90787 -1.56369 255 255 255
54.7985 -0.840227 101.596 255 255 255
-1.692 4.35447 -1.71474 255 255 255
-64.1057 6.54351 -47.9737 255 255 255
54.6542 -0.515083 101.255 255 255 255
54.7065 -0.488164 100.348 255 255 255
-54.7296 7.86553 -79.2205 255 255 255
158.337 9.71199 -44.6002 255 255 255
158.682 9.90733 -46.5696 255 255 255
154.957 9.63109 -39.7018 255 255 255
112.743 -0.0846671 106.589 255 255 255
49.6946 1.82227 87.264 255 255 255
-44.3782 -1.79997 126.038 255 255 255
49.9807 2.19759 83.9685 255 255 255
49.7545 2.37974 89.3836 255 255 255
90.8489 11.2594 -16.6675 255 255 255
-2.77843 8.53436 -1.39903 255 255 255
-2.39677 8.58963 -2.20649 255 255 255
49.6726 4.56403 85.1388 255 255 255
-9.89178 9.20475 2.23207 255 255 255
-81.5811 7.03608 4.55947 255 255 255
1.28207 10.5129 -4.58051 255 255 255
50.6876 4.68338 89.9518 255 255 255
-11.7502 10.993 0.662086 255 255 255
-11.7502 10.993 0.662086 255 255 255
50.3637 5.83131 88.3247 255 255 255
60.0009 4.3589 111.226 255 255 255
-8.89223 11.374 1.09001 255 255 255
67.2087 3.7227 122.721 255 255 255
61.1657 4.40271 113.699 255 255 255
50.212 6.42755 86.0095 255 255 255
67.7799 3.77623 125.536 255 255 255
62.1224 4.40858 116.498 255 255 255
-30.3553 16.8968 -61.8204 255 255 255
-85.036 9.66785 7.1221 255 255 255
-84.5042 9.91071 6.33235 255 255 255
-82.2906 11.0413 5.21265 255 255 255
-36.7327 18.5159 -55.0723 255 255 255
-41.4186 18.9273 -63.0631 255 255 255
-94.5489 10.3014 13.9555 255 255 255
63.9342 8.47086 118.407 255 255 255
-83.0859 13.8599 5.329 255 255 255
-37.3848 4.69253 120.069 255 255 255
63.851 9.99953 117.986 255 255 255
59.8695 13.0506 101.007 255 255 255
-79.7202 20.9559 0.7019 255 255 255
-38.1282 50.1361 110.801 255 255 255
-39.3671 51.1542 118.562 255 255 255
-36.2819 57.5421 116.959 255 255 255
-37.9385 58.6137 114.142 255 255 255
-37.9385 58.6137 114.142 255 255 255
-60.7809 -14.8363 124.315 255 255 255
-60.7809 -14.8363 124.315 255 255 255
0.477599 -21.2128 -1.69444 255 255 255
1.34336 -21.3082 -3.47968 255 255 255
1.84199 -20.8044 -5.20407 255 255 255
-61.141 -12.5117 123.679 255 255 255
-61.141 -12.5117 123.679 255 255 255
-2.92514 -18.0752 0.752409 255 255 255
-42.3617 -13.6512 97.4188 255 255 255
50.377 -17.8012 92.736 255 255 255
50.4477 -17.6031 90.9627 255 255 255
50.1883 -17.3973 91.484 255 255 255
49.2729 -17.3352 92.1839 255 255 255
0.527191 -17.2929 -3.27773 255 255 255
49.9369 -17.2885 93.1145 255 255 255
48.3372 -16.8519 86.4574 255 255 255
54.1898 -16.6351 26.0089 255 255 255
53.9863 -16.6341 25.474 255 255 255
-6.63948 -14.6044 9.1333 255 255 255
59.2609 -16.2206 28.8259 255 255 255
50.8567 -13.9702 93.6918 255 255 255
0.744133 -12.7368 -3.32947 255 255 255
53.4776 -13.8525 98.2032 255 255 255
51.1104 -13.6836 81.3584 255 255 255
-2.5705 -12.5479 -0.255851 255 255 255
-8.06445 -12.4088 1.75999 255 255 255
-84.4654 -10.9173 8.69945 255 255 255
55.6641 -13.2968 102.648 255 255 255
-87.607 -10.4569 10.3777 255 255 255
62.1656 -13.2431 113.24 255 255 255
122.246 -14.5506 16.0489 255 255 255
-88.3093 -10.272 10.9637 255 255 255
63.8811 -13.1898 115.879 255 255 255
48.9725 -12.2726 85.2322 255 255 255
48.9725 -12.2726 85.2322 255 255 255
90.5669 -12.748 13.5651 255 255 255
47.0181 -9.20148 -60.133 255 255 255
-81.8985 -7.97481 3.91687 255 255 255
130.378 -8.11398 -8.61873 255 255 255
130.657 -8.10057 -8.8927 255 255 255
-80.9225 -5.63299 4.11633 255 255 255
1.72208 -5.01759 -4.96401 255 255 255
65.746 -8.64839 121.361 255 255 255
1.45779 -4.44798 -5.39278 255 255 255
-3.47571 -4.25128 -0.883159 255 255 255
18.1921 -3.87326 -22.3262 255 255 255
18.1921 -3.87326 -22.3262 255 255 255
-11.9823 -4.03487 2.68076 255 255 255
12.1836 -3.5786 -15.258 255 255 255
28.1229 -2.7599 -34.3968 255 255 255
50.8123 -3.90604 23.489 255 255 255
50.5916 -3.90621 23.8373 255 255 255
52.3724 -3.90468 24.066 255 255 255
52.1732 -3.90769 24.243 255 255 255
53.4822 -3.87657 24.8171 255 255 255
130.023 -2.81505 -17.0209 255 255 255
69.384 -3.65343 28.0864 255 255 255
